ply
format ascii 1.0
element vertex 1755
property float x
property float y
property float z
property int segment_id
end_header
85183.09 446823.61 15.74 0
85182.81 446817.40 21.57 2
85182.00 446810.85 18.10 0
85178.30 446772.10 18.04 12
85177.92 446766.09 21.49 4
85177.15 446759.18 19.40 23
85176.51 446752.57 19.34 0
85175.76 446745.60 17.65 0
85186.14 446858.20 19.54 17
85185.53 446851.80 19.67 25
85185.03 446845.38 21.53 2
85184.31 446839.09 19.42 9
85182.64 446824.64 14.03 0
85182.46 446818.43 21.58 2
85181.70 446811.97 19.01 35
85177.85 446772.96 16.68 12
85177.57 446767.18 21.53 4
85176.90 446760.56 20.90 23
85176.11 446753.56 18.66 0
85175.53 446747.05 19.32 0
85185.64 446859.38 17.90 17
85185.04 446852.96 18.06 25
85184.61 446846.46 21.53 2
85183.96 446840.13 20.73 9
85183.08 446833.80 15.75 9
85182.04 446820.12 20.62 39
85181.44 446813.78 20.73 35
85177.31 446774.64 13.54 0
85177.12 446769.27 19.39 12
85176.64 446763.06 21.49 4
85175.75 446755.84 17.84 23
85175.44 446750.07 22.15 0
85174.32 446742.09 15.75 0
85184.65 446854.37 17.80 0
85184.24 446847.82 21.54 2
85183.63 446841.50 21.52 2
85182.80 446835.17 17.40 9
85181.63 446822.10 18.85 39
85181.18 446815.85 21.58 2
85176.36 446775.49 4.00 0
85176.64 446770.45 17.76 12
85176.27 446764.49 21.48 4
85175.52 446757.63 19.72 23
85175.05 446751.44 21.90 0
85174.06 446743.85 17.18 0
85184.26 446854.80 17.90 0
85183.81 446848.29 20.98 25
85183.24 446841.95 21.54 2
85182.45 446835.62 18.18 9
85181.30 446824.42 16.66 39
85180.97 446818.16 21.58 2
85180.09 446811.57 17.10 35
85176.47 446772.92 18.30 0
85176.01 446767.02 20.21 12
85175.48 446760.69 21.50 4
85174.72 446753.80 19.66 0
85174.20 446747.49 21.11 0
85184.13 446856.14 19.25 17
85183.55 446850.10 19.08 25
85183.07 446843.67 21.53 2
85182.37 446837.33 19.85 9
85180.95 446825.80 14.02 0
85180.77 446819.57 21.57 2
85179.99 446813.07 18.64 35
85176.23 446773.46 18.90 0
85175.67 446767.09 19.79 12
85175.17 446760.84 21.49 4
85174.41 446753.95 19.75 0
85173.87 446747.57 20.98 0
85183.81 446856.67 18.46 17
85183.19 446849.93 18.85 25
85182.72 446843.47 21.53 2
85182.04 446837.14 20.05 9
85180.41 446830.36 2.19 0
85180.55 446820.98 21.07 39
85179.89 446814.57 20.17 35
85175.99 446774.52 18.58 0
85175.38 446768.29 18.38 12
85174.98 446762.28 21.48 4
85174.17 446755.26 18.92 23
85173.84 446749.46 23.03 0
85183.50 446856.78 18.01 17
85182.88 446850.03 18.45 25
85182.43 446843.55 21.53 2
85181.77 446837.24 20.41 9
85180.81 446830.85 14.01 0
85180.26 446820.76 21.61 2
85179.53 446814.31 19.54 35
85175.72 446774.95 18.38 0
85175.10 446768.94 17.52 12
85174.75 446763.02 21.50 4
85174.02 446756.22 20.00 23
85173.67 446750.37 23.87 0
85183.21 446857.24 17.25 17
85182.54 446849.50 18.55 25
85182.09 446843.04 21.53 2
85181.42 446836.73 20.32 9
85180.50 446830.66 14.05 0
85179.99 446821.19 21.36 39
85179.30 446814.76 19.83 35
85175.44 446776.12 16.63 0
85174.85 446769.92 16.62 0
85174.56 446764.14 21.51 4
85173.93 446757.57 21.39 23
85173.45 446751.38 23.40 0
85182.94 446857.39 17.54 0
85182.20 446848.99 18.65 25
85181.74 446842.53 21.52 2
85181.06 446836.22 20.21 9
85180.15 446830.16 14.02 0
85179.72 446821.64 21.08 39
85179.05 446815.24 20.07 35
85174.94 446776.66 12.23 0
85174.73 446770.96 18.36 0
85174.31 446765.16 20.88 0
85173.79 446759.11 21.82 0
85173.20 446752.63 22.31 0
85172.04 446744.33 15.65 29
85181.80 446850.20 17.07 25
85181.42 446843.66 21.53 2
85180.81 446837.32 21.58 2
85179.93 446830.95 16.63 9
85179.35 446823.02 19.91 39
85178.84 446816.73 21.59 2
85177.97 446810.13 17.21 0
85174.65 446773.69 20.37 0
85173.95 446767.01 19.20 0
85173.49 446760.85 21.47 4
85172.83 446754.44 20.72 0
85172.10 446747.58 19.30 0
85181.23 446849.70 16.97 25
85180.85 446843.16 21.54 2
85180.25 446836.82 21.62 2
85179.37 446830.45 16.76 9
85178.85 446822.88 20.54 39
85178.27 446816.53 21.09 0
85177.40 446809.63 17.20 0
85174.19 446774.71 19.79 0
85173.48 446768.00 18.54 0
85173.06 446761.95 21.48 4
85172.44 446755.69 21.20 23
85171.76 446748.96 20.52 0
85180.62 446848.85 17.07 25
85180.24 446842.36 21.52 2
85179.64 446836.02 21.61 2
85178.75 446829.63 16.68 9
85178.35 446823.00 20.91 39
85177.78 446816.67 21.60 2
85176.90 446810.09 17.09 0
85173.72 446775.76 19.20 0
85173.00 446769.04 17.88 0
85172.63 446763.09 21.48 4
85172.00 446756.53 21.48 4
85171.34 446749.90 21.11 0
85180.05 446847.37 17.82 25
85179.63 446840.92 21.53 2
85178.99 446834.58 20.96 9
85178.11 446828.19 16.04 9
85177.81 446821.93 21.55 2
85177.20 446815.57 21.45 0
85176.30 446808.93 16.68 0
85173.31 446776.53 18.90 0
85172.60 446770.36 16.84 0
85172.30 446764.53 21.48 4
85171.68 446758.01 21.48 4
85171.15 446751.70 22.90 0
85179.61 446847.85 16.91 25
85179.24 446841.37 21.52 2
85178.64 446835.02 21.58 2
85177.76 446828.63 16.85 9
85177.42 446822.32 21.55 2
85176.81 446816.00 21.59 2
85175.93 446809.39 17.17 0
85172.91 446777.20 18.35 0
85172.22 446771.08 16.40 0
85171.95 446765.34 21.50 4
85171.32 446758.79 21.47 4
85170.85 446752.64 23.64 0
85179.20 446847.67 16.64 25
85178.84 446841.15 21.52 2
85178.24 446834.81 21.53 2
85177.37 446828.41 17.04 9
85177.02 446822.14 21.55 2
85176.41 446815.79 21.56 2
85175.55 446809.21 17.40 0
85172.42 446775.49 19.16 0
85171.80 446769.25 18.76 0
85171.36 446763.14 21.47 4
85170.73 446756.59 21.48 4
85169.96 446749.64 19.58 29
85178.72 446844.84 18.73 25
85178.26 446838.42 21.52 2
85177.58 446832.07 20.18 9
85176.91 446825.69 19.26 39
85176.44 446819.40 21.56 2
85175.77 446812.99 20.62 0
85175.19 446806.98 20.56 0
85171.89 446773.60 18.78 0
85171.44 446767.72 20.73 0
85170.86 446761.30 21.48 4
85170.31 446754.95 22.47 0
85178.60 446848.23 15.77 0
85178.27 446841.71 21.07 25
85177.69 446835.38 21.53 2
85176.89 446829.00 18.10 9
85176.47 446822.69 21.54 2
85175.86 446816.33 21.58 2
85175.07 446809.82 18.47 0
85171.18 446776.04 6.70 0
85171.30 446771.47 16.80 0
85171.00 446765.67 21.49 4
85170.41 446759.48 21.49 4
85169.92 446753.29 23.50 0
85178.14 446846.41 16.68 25
85177.78 446839.91 21.50 0
85177.18 446833.56 21.54 2
85176.38 446827.20 18.17 39
85175.96 446820.89 21.55 2
85175.36 446814.56 21.57 2
85174.74 446808.21 21.36 0
85171.44 446775.98 17.62 0
85170.92 446769.69 19.11 0
85170.48 446763.84 21.49 4
85169.86 446757.28 21.48 4
85169.08 446750.35 19.51 29
85177.62 446843.58 18.74 25
85177.16 446837.16 21.53 2
85176.48 446830.81 20.20 9
85175.95 446824.49 21.54 2
85175.34 446818.14 21.57 2
85174.68 446811.76 20.65 0
85174.00 446805.33 19.55 0
85170.66 446772.32 16.51 0
85170.38 446766.53 21.49 4
85169.75 446760.02 21.48 4
85169.27 446753.86 23.51 0
85177.31 446845.66 16.50 25
85176.97 446839.17 21.53 2
85176.36 446832.85 21.57 2
85175.64 446826.47 19.62 39
85175.14 446820.18 21.56 2
85174.54 446813.84 21.63 0
85173.97 446807.53 22.44 0
85170.45 446773.60 17.75 0
85170.03 446767.51 20.69 38
85169.46 446761.12 21.47 4
85169.00 446755.25 23.36 0
85176.81 446846.18 14.00 0
85176.57 446839.62 21.20 25
85175.98 446833.30 21.56 2
85175.26 446826.93 19.50 39
85174.76 446820.61 21.56 2
85174.16 446814.26 21.76 0
85173.60 446807.97 22.61 0
85170.03 446773.74 17.69 0
85169.57 446767.56 20.13 38
85169.04 446761.27 21.48 4
85168.58 446755.17 23.84 0
85176.24 446844.03 16.78 25
85175.88 446837.56 21.53 2
85175.26 446831.22 21.57 2
85174.65 446824.88 21.55 2
85174.04 446818.55 21.59 2
85173.43 446812.19 21.64 0
85172.85 446805.88 22.09 0
85169.15 446770.51 17.05 38
85168.84 446764.67 21.48 4
85168.20 446758.13 21.48 4
85167.29 446750.56 18.11 29
85175.50 446840.55 19.17 25
85175.02 446834.19 21.55 2
85174.31 446827.85 19.81 9
85173.80 446821.52 21.56 2
85173.19 446815.17 21.75 0
85172.63 446808.86 22.51 0
85171.83 446802.30 19.59 0
85168.44 446767.63 18.85 38
85168.00 446761.52 21.47 4
85167.52 446755.35 23.48 0
85175.10 446842.31 17.18 25
85174.73 446835.89 21.54 2
85174.12 446829.57 21.64 9
85173.51 446823.22 21.54 2
85172.90 446816.87 21.58 2
85172.28 446810.51 21.59 0
85171.68 446804.17 21.77 0
85168.07 446769.70 16.62 38
85167.79 446763.93 21.55 38
85167.23 446757.86 22.13 0
85166.20 446750.24 16.78 29
85174.53 446838.25 20.24 25
85174.00 446831.89 21.58 2
85173.38 446825.55 21.55 2
85172.77 446819.22 21.57 2
85172.17 446812.87 21.77 0
85171.70 446806.68 24.04 0
85170.65 446800.65 15.66 0
85167.50 446765.72 19.58 38
85167.01 446759.52 21.48 4
85166.21 446752.50 19.23 29
85174.24 446839.67 18.64 25
85173.82 446833.29 22.13 0
85173.17 446826.94 21.49 0
85172.54 446820.58 21.19 0
85171.95 446814.26 21.58 2
85171.51 446808.07 24.46 0
85170.60 446801.39 19.56 0
85167.16 446766.34 18.68 38
85166.74 446760.26 21.48 4
85165.99 446753.42 19.98 29
85173.87 446839.13 18.79 25
85173.41 446832.75 21.58 2
85172.79 446826.40 21.53 2
85172.17 446820.04 21.29 0
85171.63 446814.36 21.59 2
85171.21 446808.20 24.58 0
85170.35 446801.58 20.79 0
85166.83 446766.67 18.02 38
85166.45 446760.72 21.49 4
85165.72 446753.92 20.27 29
85173.51 446838.90 18.58 25
85173.06 446832.53 21.61 2
85172.44 446826.18 21.55 2
85171.81 446819.83 21.09 0
85171.22 446813.50 21.59 2
85170.88 446807.71 25.38 0
85169.97 446801.03 20.68 0
85166.54 446767.86 16.59 38
85166.26 446762.13 21.56 38
85165.67 446755.70 22.13 29
85173.22 446839.98 17.27 25
85172.84 446833.59 21.57 2
85172.23 446827.24 21.55 2
85171.52 446820.85 19.85 0
85171.10 446814.61 23.18 0
85170.60 446808.40 24.90 0
85169.78 446801.83 21.63 0
85166.14 446766.74 17.20 38
85165.82 446760.90 21.48 4
85165.05 446754.01 19.73 29
85172.70 446838.14 18.41 25
85172.29 446832.10 21.57 2
85171.68 446825.75 21.54 2
85171.01 446819.40 20.65 0
85170.48 446813.40 21.60 0
85170.16 446807.32 26.31 0
85169.22 446800.62 21.14 0
85165.66 446765.91 17.46 38
85165.32 446760.03 21.58 0
85164.41 446752.78 17.86 29
85172.11 446836.32 19.41 25
85171.62 446829.99 21.56 2
85171.01 446823.67 21.58 2
85170.39 446817.32 21.62 0
85169.93 446811.96 22.56 0
85169.45 446805.48 25.33 0
85168.51 446799.04 19.56 0
85165.05 446763.92 18.58 38
85164.80 446758.29 23.94 29
85171.71 446839.06 16.52 25
85171.37 446832.64 21.57 2
85170.75 446826.29 21.57 2
85169.99 446819.90 19.04 0
85169.52 446813.61 21.57 2
85169.25 446807.93 26.64 0
85168.39 446801.32 22.68 0
85164.60 446765.97 16.22 38
85164.38 446760.40 22.07 0
85163.37 446752.87 16.99 29
85170.97 446834.67 19.72 25
85170.46 446828.34 21.54 2
85169.68 446821.91 18.67 20
85169.24 446815.67 21.63 0
85168.84 446809.53 25.25 0
85168.09 446802.49 24.09 0
85163.91 446766.97 11.12 0
85163.96 446761.65 21.11 0
85163.07 446754.22 18.19 29
85170.42 446834.17 19.61 25
85169.91 446827.84 21.55 2
85169.06 446821.38 17.59 0
85168.68 446815.16 21.59 2
85168.35 446809.09 26.19 0
85167.56 446802.31 23.80 0
85163.47 446767.44 11.29 0
85163.51 446762.37 20.78 0
85162.70 446755.12 18.82 29
85169.95 446833.96 19.29 25
85169.46 446827.61 21.53 2
85168.57 446821.15 16.87 0
85168.24 446814.96 21.65 0
85167.94 446808.90 26.75 0
85167.06 446802.01 23.02 0 2.154017235395100
85162.92 446767.79 8.54 0
85163.12 446762.79 20.63 0
85162.41 446756.05 19.57 29
85169.57 446833.72 19.07 25
85169.10 446827.41 21.52 2
85168.17 446820.93 16.29 0
85167.87 446814.73 21.56 2
85167.60 446808.70 27.20 0
85166.66 446801.75 22.40 0
85162.60 446768.19 8.15 0
85162.83 446763.75 19.88 0
85162.19 446756.93 20.26 29
85169.33 446834.49 18.12 25
85168.90 446828.14 21.54 2
85168.02 446821.69 16.96 0
85167.62 446815.42 20.68 0
85167.38 446809.43 26.67 0
85166.51 446802.57 23.12 0
85165.37 446796.05 14.03 0
85162.61 446764.73 19.04 0
85162.20 446758.71 22.22 29
85169.02 446834.95 17.38 25
85168.63 446828.61 21.54 2
85167.77 446822.17 17.26 0
85167.31 446815.87 19.96 0
85167.09 446809.85 26.51 0
85166.19 446802.68 22.89 0
85161.75 446768.89 2.11 0
85162.34 446765.71 18.24 0
85162.10 446760.08 23.60 0
85168.67 446835.38 16.60 25
85168.40 446829.33 22.30 0
85167.52 446822.91 17.77 20
85166.97 446816.25 19.45 0
85166.77 446810.24 26.36 0
85165.90 446803.09 23.12 0
85164.84 446796.72 15.34 0
85162.01 446765.82 18.42 0
85161.73 446760.09 23.31 0
85168.31 446835.80 16.34 0
85168.02 446829.43 22.32 0
85167.19 446823.35 17.96 0
85166.60 446816.36 19.62 0
85166.40 446810.38 26.56 0
85165.38 446802.48 22.00 0
85164.29 446795.46 14.79 0
85161.61 446765.41 19.22 0
85161.17 446759.30 21.88 29
85167.86 446834.64 18.03 0
85167.47 446828.61 21.54 2
85166.52 446822.11 15.91 20
85166.14 446814.40 22.50 0
85165.92 446808.44 28.95 0
85164.55 446800.44 18.43 13
85160.79 446769.91 4.44 0
85161.20 446765.58 19.42 0
85160.73 446759.40 21.63 29
85167.38 446835.06 18.00 0
85167.00 446829.06 21.54 2
85166.05 446822.58 16.04 20
85165.62 446813.63 23.80 0
85165.16 446807.19 26.79 0
85164.04 446800.54 18.43 13
85163.14 446793.72 14.42 0
85160.74 446766.58 18.78 0
85160.38 446760.68 22.65 29
85166.90 446836.14 17.25 0
85166.53 446829.79 21.55 2
85165.61 446823.32 16.46 20
85165.08 446813.16 24.78 0
85164.31 446805.53 24.28 0
85163.38 446799.38 18.43 13
85159.63 446770.78 1.77 0
85160.20 446766.18 19.72 0
85159.60 446759.46 20.65 29
85166.37 446834.67 19.30 0
85165.88 446828.32 21.55 2
85164.73 446816.90 20.97 0
85164.43 446810.81 26.24 0
85163.38 446803.20 20.89 0
85162.64 446797.21 18.16 0
85159.87 446770.28 15.70 0
85159.67 446764.67 21.80 0
85158.72 446757.41 17.62 29
85165.95 446833.81 20.65 0
85165.33 446827.48 20.64 20
85164.20 446815.11 22.02 0
85163.91 446809.08 27.26 0
85162.70 446801.84 18.44 13
85161.98 446795.27 17.06 0
85159.15 446770.76 9.40 0
85159.32 446765.92 20.76 0
85158.58 446759.12 19.40 29
85165.64 446835.17 19.47 0
85165.14 446828.84 21.54 2
85163.85 446816.13 20.69 0
85163.54 446809.76 26.25 0
85162.53 446803.28 19.56 0
85161.84 446796.80 18.54 0
85158.59 446771.56 4.87 0
85159.03 446767.71 19.14 0
85158.61 446761.69 22.14 29
85165.41 446837.53 17.11 0
85165.04 446831.14 21.58 2
85164.12 446824.70 16.57 20
85163.26 446811.04 24.80 0
85162.46 446804.26 22.52 0
85161.64 446798.16 18.42 13
85160.77 446791.38 14.83 0
85158.77 446769.22 17.75 0
85158.58 446763.69 23.85 0
85165.17 446838.59 16.20 0
85164.85 446832.20 21.54 2
85164.00 446825.81 17.67 20
85162.97 446811.70 23.83 0
85162.28 446805.29 22.56 0
85161.42 446798.94 18.42 13
85160.62 446792.24 15.80 0
85158.52 446769.92 17.23 0
85158.32 446764.35 23.35 0
85164.88 446839.67 14.03 0
85164.71 446833.55 21.55 2
85163.95 446827.21 19.14 20
85162.72 446812.40 22.97 0
85162.04 446805.72 22.40 0
85161.16 446799.02 18.42 13
85160.38 446792.36 16.14 0
85158.24 446769.48 17.96 0
85158.04 446763.92 23.99 29
85164.58 446839.12 16.15 0
85164.26 446832.72 21.54 2
85163.41 446826.32 17.68 20
85162.23 446810.36 24.29 0
85161.34 446804.03 19.62 0
85160.67 446797.88 18.43 13
85159.75 446790.98 14.02 0
85157.87 446769.06 18.77 0
85157.52 446763.17 22.70 29
85164.13 446838.55 17.20 0
85163.75 446832.18 21.55 2
85162.84 446825.75 16.59 0
85161.68 446809.24 24.73 0
85160.68 446802.75 18.41 13
85160.06 446796.34 18.42 13
85157.44 446772.10 14.16 0
85157.27 446766.55 20.78 36
85156.39 446759.46 17.68 29
85163.55 446835.78 20.69 0
85162.93 446829.44 20.65 20
85161.27 446811.73 22.03 0
85160.54 446805.26 20.51 0
85159.81 446799.05 18.44 13
85158.94 446792.24 14.77 0
85156.78 446767.73 19.20 36
85156.15 446761.20 19.39 29
85163.13 446837.20 19.55 0
85162.62 446830.84 21.54 2
85160.75 446812.14 21.02 0
85160.10 446805.73 20.63 0
85159.33 446799.16 18.42 13
85158.40 446792.29 14.10 0
85156.20 446766.91 19.28 36
85155.42 446760.02 17.42 29
85162.61 446836.37 20.92 0
85161.95 446830.02 20.34 20
85160.10 446810.10 22.24 0
85159.23 446803.47 18.41 13
85158.60 446797.05 18.42 13
85155.75 446768.96 16.94 36
85155.37 446762.98 20.56 29
85162.26 446838.71 18.73 0
85161.80 446832.36 21.55 2
85159.64 446811.64 19.54 0
85158.95 446805.18 18.55 0
85158.31 446798.76 18.43 13
85155.31 446769.88 15.71 36
85155.03 446764.08 20.62 36
85161.93 446839.50 18.20 0
85161.50 446833.10 21.55 2
85159.22 446811.10 19.54 0
85158.52 446804.64 18.55 0
85157.89 446798.22 18.43 13
85154.86 446768.72 16.22 36
85154.45 446762.68 19.40 29
85161.61 446838.29 19.77 0
85161.09 446831.94 21.63 20
85158.90 446810.05 20.97 0
85158.14 446803.81 18.42 13
85157.51 446797.37 18.42 13
85154.52 446768.19 16.28 36
85154.02 446761.95 18.24 29
85161.30 446838.41 19.94 0
85160.77 446832.05 21.53 2
85158.51 446809.21 21.35 0
85157.70 446802.63 18.42 13
85156.98 446796.08 17.06 0
85154.03 446765.35 18.39 36
85161.06 446841.05 17.28 0
85160.68 446834.66 21.56 2
85159.75 446828.26 16.43 20
85157.49 446804.58 17.57 0
85156.91 446798.21 18.42 13
85153.71 446766.51 16.97 36
85160.77 446842.48 16.02 0
85160.45 446836.01 21.56 2
85159.61 446829.66 17.81 20
85157.17 446805.88 15.98 0
85156.69 446799.60 18.42 13
85153.27 446767.48 13.95 0
85152.79 446761.24 16.32 29
85160.27 446837.67 21.65 0
85159.53 446831.34 19.56 20
85157.08 446809.71 14.02 0
85156.72 446804.38 16.88 0
85156.19 446798.07 18.51 0
85152.88 446765.41 17.09 36
85159.98 446841.65 17.64 0
85159.57 446835.26 21.55 2
85158.62 446828.86 16.08 20
85156.33 446806.91 14.00 0
85155.98 446800.76 18.42 13
85151.75 446765.93 4.75 0
85151.93 446761.36 15.67 29
85159.31 446837.91 21.55 2
85158.53 446831.56 18.88 20
85156.18 446808.52 17.77 0
85155.56 446802.41 17.49 0
85154.73 446795.70 14.59 0
85159.06 446843.85 16.12 0
85158.73 446837.40 21.54 2
85157.88 446831.04 17.74 20
85155.20 446807.61 11.42 0
85154.85 446800.02 18.42 13
85151.21 446764.62 15.99 36
85158.52 446840.67 20.02 0
85157.98 446834.32 21.41 20
85155.12 446811.61 10.96 0
85154.54 446802.83 15.96 0
85153.78 446796.23 14.13 0
85158.20 446843.10 17.72 0
85157.79 446836.67 21.54 2
85156.82 446830.29 15.84 20
85154.38 446808.17 11.39 0
85153.79 446798.85 17.12 0
85157.88 446843.47 17.59 0
85157.48 446837.06 21.56 2
85156.53 446830.68 16.10 20
85153.73 446803.28 14.66 0
85153.05 446796.73 14.02 0
85157.52 446841.29 20.27 0
85156.94 446834.95 21.11 20
85154.10 446811.92 11.45 0
85153.32 446801.22 16.13 0
85157.35 446843.71 17.77 0
85156.94 446837.28 21.55 2
85155.97 446830.90 15.74 20
85153.11 446802.84 14.37 0
85157.09 446845.48 16.18 0
85156.76 446838.99 21.56 2
85155.90 446832.64 17.60 20
85152.72 446802.61 14.02 0
85156.69 446845.22 16.83 0
85156.32 446838.74 21.55 2
85155.42 446832.39 16.91 20
85152.18 446800.54 15.54 0
85156.18 446843.34 19.27 0
85155.68 446836.94 21.56 2
85152.44 446810.72 10.74 0
85155.83 446845.75 17.04 0
85155.45 446839.31 21.59 2
85154.54 446832.97 16.78 20
85155.38 446846.87 16.27 0
85155.04 446840.36 21.54 2
85154.18 446834.05 17.59 20
85154.88 446845.93 17.68 0
85154.47 446839.50 21.54 2
85153.50 446833.15 15.89 20
85154.41 446843.74 20.47 0
85153.81 446837.40 20.87 20
85154.24 446848.10 15.79 0
85153.93 446841.59 21.52 2
85153.08 446835.26 17.86 20
85153.79 446844.20 20.49 0
85153.17 446837.86 20.81 20
85153.65 446848.88 15.78 0
85153.38 446842.70 21.58 2
85152.57 446836.37 18.61 20
85153.42 446849.61 15.86 0
85153.10 446843.06 21.55 2
85152.31 446836.76 18.84 20
85151.48 446832.59 11.82 0
85152.90 446845.08 20.39 0
85152.29 446838.72 20.89 20
85152.29 446833.64 29.62 0
85152.63 446849.13 16.40 0
85152.27 446842.60 21.51 2
85151.45 446836.30 18.25 0
85151.13 446832.49 19.23 0
85152.07 446847.24 18.85 0
85151.58 446840.81 21.53 2
85151.90 446834.74 37.33 0
85151.77 446851.29 15.78 0
85151.49 446845.02 21.59 2
85150.82 446838.69 21.10 0
85151.70 446834.52 43.08 0
85150.40 446831.44 26.34 0
85151.26 446849.39 18.06 0
85150.82 446842.93 21.54 2
85150.10 446836.61 20.04 0
85151.03 446832.87 42.12 0
85148.75 446829.53 9.27 0
85150.70 446845.91 21.56 2
85150.06 446839.57 21.55 2
85150.83 446835.07 42.12 0
85149.58 446831.05 27.90 0
85150.53 446849.93 18.18 0
85150.08 446843.46 21.55 2
85149.42 446837.12 21.25 0
85150.67 446833.06 49.10 0
85148.22 446829.48 14.04 0
85150.06 446846.75 21.20 0
85149.44 446840.39 21.56 2
85150.43 446835.53 46.47 0
85149.70 446831.03 41.85 0
85150.02 446851.76 16.69 0
85149.65 446845.23 21.53 2
85149.01 446838.89 21.58 2
85150.30 446835.03 50.04 0
85149.46 446830.23 43.98 0
85149.64 446850.24 18.60 0
85149.16 446843.77 21.55 2
85148.95 446837.37 28.89 0
85149.75 446832.49 50.82 0
85149.37 446852.95 16.00 0
85149.04 446846.37 21.53 2
85148.40 446840.04 21.57 2
85149.25 446836.43 42.16 0
85148.88 446830.73 45.67 0
85148.89 446850.68 18.83 0
85148.40 446844.26 21.52 2
85148.21 446837.86 29.25 0
85149.22 446834.98 51.29 0
85148.35 446829.65 45.69 0
85148.50 446851.11 18.75 0
85148.05 446844.95 21.67 0
85147.44 446838.95 21.57 2
85148.74 446833.88 52.18 0
85146.05 446828.14 16.57 0
85147.99 446850.22 20.13 0
85147.36 446844.85 18.64 0
85146.92 446838.76 21.59 2
85148.14 446833.10 51.81 0
85145.40 446826.97 16.18 0
85147.50 446849.97 20.84 0
85147.05 446844.51 22.53 0
85146.42 446838.86 21.58 2
85147.74 446834.10 51.79 0
85145.08 446828.03 17.49 0
85147.21 446853.04 17.92 0
85146.78 446846.54 21.71 0
85146.19 446840.85 21.58 2
85147.41 446835.67 50.73 0
85144.98 446830.06 19.48 0
85146.91 446855.61 14.04 0
85146.73 446848.84 22.48 0
85146.04 446842.53 21.53 2
85145.43 446836.52 21.56 2
85144.83 446831.15 20.66 0
85143.89 446824.69 15.78 0
85146.51 446850.89 20.77 0
85145.91 446844.51 21.54 2
85145.27 446838.20 21.57 2
85146.51 446833.18 50.94 0
85143.92 446827.06 17.85 0
85146.30 446853.63 18.12 0
85145.86 446847.14 21.78 0
85145.23 446841.13 21.56 2
85146.30 446835.01 49.84 0
85144.14 446830.67 20.93 0
85143.19 446824.23 15.97 0
85145.88 446851.05 21.17 0
85145.26 446844.72 21.53 2
85144.61 446838.38 21.57 2
85145.67 446834.22 46.52 0
85143.55 446828.87 19.92 0
85145.69 446856.62 14.04 0
85145.52 446849.85 22.79 0
85144.80 446843.55 21.54 2
85144.16 446837.24 21.57 2
85143.61 446831.83 21.53 2
85142.74 446825.44 17.65 0
85145.26 446853.58 19.11 0
85144.82 446847.11 22.92 0
85144.10 446840.81 21.58 2
85144.93 446834.46 46.32 0
85142.92 446829.43 21.11 0
85141.97 446822.95 16.17 0
85144.77 446852.34 20.86 0
85144.14 446845.98 21.21 0
85143.54 446839.62 21.96 0
85144.31 446833.35 45.71 0
85142.16 446827.29 19.94 0
85144.46 446857.89 14.03 0
85144.28 446851.46 22.01 8
85143.55 446845.16 20.57 16
85142.96 446838.80 21.56 2
85142.34 446832.78 21.53 2
85141.59 446826.41 19.80 0
85144.10 446857.59 15.79 0
85143.79 446850.93 21.95 8
85143.06 446844.63 20.55 16
85142.49 446838.26 21.86 0
85141.82 446831.93 21.52 2
85141.06 446825.57 19.56 0
85143.58 446857.81 14.04 0
85143.33 446851.05 21.36 8
85142.60 446844.74 19.93 16
85142.05 446838.39 21.60 0
85141.40 446832.05 21.51 2
85140.66 446825.70 20.09 0
85143.17 446856.12 16.59 8
85142.83 446849.51 22.22 8
85142.11 446843.23 20.89 16
85141.50 446836.88 21.56 2
85140.85 446830.54 21.51 2
85140.07 446824.15 19.29 0
85142.72 446854.23 17.83 8
85142.27 446847.71 21.31 0
85141.63 446841.37 21.54 2
85140.99 446835.05 21.51 2
85140.34 446828.72 21.52 2
85139.43 446822.29 17.34 0
85142.28 446851.34 19.97 8
85141.55 446845.00 18.57 16
85141.07 446838.58 21.57 2
85140.43 446832.28 21.50 2
85139.76 446825.93 21.31 0
85142.11 446854.76 16.68 8
85141.72 446848.20 21.40 0
85141.04 446841.87 20.93 16
85140.43 446835.52 21.52 2
85139.78 446829.18 21.51 2
85138.87 446822.75 17.36 0
85141.51 446850.85 19.58 8
85140.78 446844.54 18.21 16
85140.32 446838.12 21.56 2
85139.67 446831.81 21.51 2
85138.96 446825.47 20.38 0
85141.14 446851.97 18.19 8
85140.44 446845.60 17.44 0
85140.02 446839.14 21.55 2
85139.37 446832.83 21.50 2
85138.70 446826.48 21.19 0
85140.73 446852.75 17.00 8
85140.13 446846.33 18.00 0
85139.66 446839.91 21.22 16
85139.03 446833.57 21.48 2
85138.38 446827.23 21.58 0
85140.22 446852.56 16.65 8
85139.59 446846.16 17.23 0
85139.14 446839.71 20.84 16
85138.53 446833.35 21.49 2
85137.84 446827.00 20.88 0
85139.64 446851.36 17.13 8
85138.90 446844.99 15.74 16
85138.57 446838.52 21.33 16
85137.93 446832.21 21.49 2
85137.13 446825.82 19.04 0
85139.15 446850.47 17.39 8
85138.40 446843.79 16.34 16
85138.05 446837.36 21.55 2
85137.39 446831.01 21.51 2
85136.50 446824.62 17.60 37
85138.75 446849.64 17.72 8
85137.95 446841.99 17.45 16
85137.53 446835.60 21.51 2
85136.88 446829.26 21.51 2
85135.92 446822.79 16.62 37
85138.30 446848.15 18.26 0
85137.50 446840.17 18.65 16
85137.01 446833.79 21.51 2
85136.30 446827.46 20.43 37
85135.35 446820.96 15.80 0
85137.29 446842.53 16.28 16
85136.94 446836.08 21.54 2
85136.29 446829.77 21.52 2
85135.40 446823.36 17.69 37
85137.68 446848.32 17.81 8
85136.81 446839.37 18.60 16
85136.33 446833.02 21.53 2
85135.61 446826.67 20.51 37
85134.66 446820.18 15.80 0
85136.61 446841.42 16.55 16
85136.24 446835.00 21.52 2
85135.59 446828.69 21.51 2
85134.68 446822.25 17.42 37
85136.65 446847.06 14.02 0
85135.91 446836.06 20.73 16
85135.30 446829.75 21.52 2
85134.47 446823.33 18.67 37
85136.43 446848.05 16.43 0
85135.41 446836.16 20.09 16
85134.84 446829.84 21.52 2
85134.05 446823.47 19.25 37
85135.87 446847.85 15.79 0
85134.84 446835.32 20.24 16
85134.26 446828.97 21.52 2
85133.45 446822.59 19.07 37
85134.56 446839.26 16.32 16
85134.21 446832.86 21.52 2
85133.56 446826.55 21.53 2
85132.65 446820.10 17.64 37
85133.96 446836.48 18.28 16
85133.50 446830.13 21.51 2
85132.80 446823.80 20.88 37
85131.82 446817.26 15.84 0
85133.42 446833.70 20.21 16
85132.84 446827.36 21.54 2
85132.03 446820.97 19.09 37
85133.30 446837.95 16.21 16
85132.96 446831.59 21.61 16
85132.30 446825.27 21.52 2
85131.40 446818.80 17.79 37
85132.89 446835.51 18.00 16
85132.45 446829.18 21.53 2
85131.76 446822.84 21.11 37
85130.79 446816.27 16.15 37
85132.45 446833.07 19.78 16
85131.89 446826.74 21.52 2
85131.11 446820.33 19.52 37
85132.31 446836.98 16.02 16
85131.97 446830.61 21.55 2
85131.31 446824.27 21.52 2
85130.42 446817.79 17.90 37
85131.77 446834.19 17.98 16
85131.32 446827.85 21.52 2
85130.63 446821.50 21.09 37
85129.65 446814.92 16.05 37
85131.24 446832.06 19.38 16
85130.71 446825.73 21.51 2
85129.95 446819.36 19.87 37
85130.96 446836.00 15.76 0
85130.60 446829.63 20.91 16
85129.98 446823.33 21.51 2
85129.12 446816.85 18.45 37
85130.37 446835.12 15.80 0
85130.03 446829.07 20.82 16
85129.42 446822.77 21.52 2
85128.56 446816.30 18.56 37
85129.84 446834.57 15.80 0
85129.49 446828.22 21.00 16
85128.86 446821.89 21.52 2
85127.99 446815.42 18.38 37
85126.47 446802.43 15.75 0
85129.13 446828.92 19.98 16
85128.56 446822.63 21.52 2
85127.75 446816.19 19.30 37
85126.16 446802.86 16.03 0
85128.74 446828.71 19.73 16
85128.19 446822.40 21.51 2
85127.39 446815.96 19.52 37
85125.37 446803.90 6.81 0
85128.55 446831.26 17.21 16
85128.15 446824.98 21.53 2
85127.49 446818.64 21.53 2
85126.52 446812.07 16.84 37
85125.30 446801.07 15.75 0
85128.04 446827.24 20.34 16
85127.45 446820.94 21.53 2
85126.62 446814.47 18.96 37
85125.22 446803.88 14.04 0
85127.93 446830.12 17.60 16
85127.51 446823.84 21.52 2
85126.84 446817.50 21.54 2
85125.85 446810.90 16.46 37
85124.87 446801.54 16.50 24
85127.44 446827.69 19.30 16
85126.91 446821.38 21.53 2
85126.15 446814.98 19.91 37
85124.41 446804.67 8.90 0
85127.17 446830.92 16.05 16
85126.83 446824.62 21.53 2
85126.17 446818.30 21.52 2
85125.27 446811.76 17.93 37
85124.32 446802.78 17.81 0
85126.52 446828.13 17.87 16
85126.08 446821.85 21.51 2
85125.39 446815.52 21.22 37
85124.39 446808.85 16.20 37
85123.72 446801.57 17.79 24
85125.97 446827.00 18.32 16
85125.50 446820.72 21.51 2
85124.78 446814.34 20.85 37
85123.77 446807.65 15.69 37
85123.11 446800.39 17.36 24
85125.39 446826.15 18.49 16
85124.91 446819.89 21.51 2
85124.18 446813.50 20.64 37
85123.19 446806.80 15.75 0
85122.66 446800.53 18.00 24
85124.90 446826.22 17.91 16
85124.46 446819.95 21.50 2
85123.77 446813.58 21.18 37
85122.76 446806.92 16.15 37
85122.24 446800.65 18.53 24
85124.51 446826.28 17.43 16
85124.09 446820.04 21.51 2
85123.43 446813.70 21.58 37
85122.43 446807.05 16.66 37
85121.92 446800.82 19.03 24
85124.23 446826.70 16.74 16
85123.86 446820.46 21.51 2
85123.19 446814.12 21.53 2
85122.23 446807.48 17.23 37
85121.72 446801.24 19.64 24
85123.96 446827.39 15.73 16
85123.63 446821.16 21.21 16
85122.98 446814.82 21.52 2
85122.09 446808.27 18.13 37
85121.58 446802.06 20.54 24
85120.48 446795.37 13.96 0
85123.35 446821.52 20.56 16
85122.74 446815.21 21.51 2
85121.88 446808.68 18.71 37
85121.35 446802.44 20.91 0
85120.33 446795.61 15.84 0
85123.03 446821.86 19.91 16
85122.46 446815.58 21.51 2
85121.65 446809.10 19.36 37
85121.07 446802.82 20.72 0
85120.12 446796.08 16.65 24
85122.66 446821.93 19.43 16
85122.12 446815.67 21.52 2
85121.34 446809.24 19.79 37
85120.74 446802.92 20.88 0
85119.80 446796.18 17.07 24
85122.20 446822.33 18.54 16
85121.71 446816.07 21.53 2
85120.98 446809.66 20.59 37
85120.32 446803.32 20.82 0
85119.44 446796.68 17.90 24
85121.71 446823.02 17.37 16
85121.30 446816.82 21.52 2
85120.63 446810.49 21.53 2
85119.88 446804.04 20.44 0
85119.11 446797.52 19.06 24
85121.15 446822.48 17.25 16
85120.75 446816.28 21.53 2
85120.07 446809.94 21.49 2
85119.39 446803.57 21.42 0
85118.56 446796.99 19.14 24
85120.65 446821.67 17.49 16
85120.23 446815.44 21.50 2
85119.62 446809.75 21.47 2
85118.98 446803.41 21.96 0
85118.13 446796.81 19.45 24
85120.14 446820.51 18.03 16
85119.69 446814.28 21.49 2
85118.99 446807.92 21.12 37
85118.48 446801.73 23.54 24
85117.33 446794.75 16.64 0
85119.60 446817.50 20.19 16
85119.07 446811.25 22.39 0
85118.32 446805.11 20.75 0
85117.69 446798.77 21.34 0
85119.48 446820.97 16.84 16
85119.10 446814.77 21.50 2
85118.50 446809.05 21.50 2
85117.96 446802.84 23.51 0
85116.88 446795.97 17.55 0
85119.06 446817.63 19.47 16
85118.52 446811.39 21.49 2
85117.83 446805.03 21.23 0
85117.11 446798.59 20.61 0
85118.83 446819.25 17.75 16
85118.39 446813.06 21.49 2
85117.72 446806.72 21.42 37
85117.12 446800.43 22.58 0
85118.49 446820.24 16.48 16
85118.13 446814.08 21.53 2
85117.45 446807.72 21.48 2
85116.92 446801.54 23.51 0
85118.01 446820.00 16.14 16
85117.66 446813.83 21.47 2
85117.03 446807.84 21.48 2
85116.46 446801.60 23.16 0
85117.48 446819.13 16.40 16
85117.13 446812.99 21.56 0
85116.45 446806.63 21.48 2
85115.74 446800.24 21.08 0
85116.81 446817.02 17.61 16
85116.39 446810.85 21.50 2
85115.84 446804.65 23.47 0
85114.64 446797.06 16.72 0
85116.11 446813.39 20.16 16
85115.52 446807.09 21.47 2
85114.78 446800.67 20.66 0
85115.81 446815.59 17.83 16
85115.37 446809.39 21.47 2
85114.82 446803.19 23.34 0
85115.59 446817.18 16.11 16
85115.25 446811.05 21.41 16
85114.79 446805.49 23.52 0
85113.63 446798.29 17.07 0
85115.04 446812.94 19.47 16
85114.56 446807.06 22.00 0
85113.65 446800.13 19.06 0
85114.79 446814.20 18.00 16
85114.33 446808.03 21.49 2
85113.60 446801.61 20.60 0
85114.48 446814.57 17.36 16
85114.07 446808.41 21.48 2
85113.34 446801.98 20.74 0
85114.11 446814.04 17.43 16
85113.72 446807.91 21.88 0
85112.89 446801.37 19.64 0
85113.58 446812.55 18.22 16
85113.26 446806.54 23.77 0
85112.14 446799.68 17.17 0
85112.97 446810.52 19.78 0
85112.46 446804.32 22.42 0
85112.65 446814.26 16.06 0
85112.39 446808.22 22.52 21
85111.37 446801.21 18.12 0
85112.08 446811.31 19.35 21
85111.61 446805.16 22.57 0
85111.77 446814.10 16.50 21
85111.42 446808.02 21.61 21
85110.45 446801.32 17.37 0
85111.16 446810.50 19.10 21
85110.58 446804.21 20.66 0
85110.92 446811.76 17.68 21
85110.54 446805.67 22.17 0
85110.75 446813.00 16.36 21
85110.40 446806.93 21.52 21
85110.49 446813.69 15.76 0
85110.14 446807.88 20.37 21
85109.17 446801.14 16.02 0
85109.75 446807.91 19.93 21
85108.78 446801.21 15.68 0
85109.23 446807.03 20.21 21
85109.02 446811.69 15.70 21
85108.63 446805.56 20.35 0
85108.32 446808.70 17.65 21
85107.50 446802.13 15.75 0
85107.51 446805.00 18.69 0
85107.25 446806.65 18.41 21
85106.89 446807.35 17.39 21
85106.50 446807.72 16.64 21
85106.09 446807.16 16.68 21
85105.68 446805.69 17.60 21
85104.97 446806.38 16.16 21
85160.16 446754.23 0.64 0
85161.29 446753.26 1.05 0
85161.93 446753.13 4.31 0
85163.05 446751.90 2.67 0
85163.40 446751.31 4.58 0
85164.31 446750.69 1.92 0
85164.93 446750.15 1.68 0
85164.88 446750.27 6.52 0
85165.77 446749.51 2.12 0
85165.90 446749.47 5.03 0
85166.47 446748.98 3.11 0
85166.46 446748.97 6.67 0
85167.30 446748.35 2.12 0
85167.40 446748.81 4.19 0
85167.62 446747.86 6.30 0
85167.91 446747.71 7.20 0
85168.07 446747.53 9.49 0
85168.25 446747.43 10.19 0
85169.25 446746.55 2.20 0
85169.30 446746.52 5.08 0
85169.39 446746.46 7.13 0
85169.61 446746.59 8.18 0
85169.96 446747.55 7.19 0
85170.25 446747.38 7.24 0
85170.40 446745.75 9.49 0
85170.81 446745.27 7.89 0
85171.08 446744.81 8.35 0
85171.18 446744.69 10.53 0
85171.41 446744.52 9.80 0
85171.91 446744.32 6.08 0
85172.40 446744.25 2.93 0
85172.69 446743.94 3.22 0
85172.96 446743.68 3.28 0
85173.39 446742.92 1.97 0
85172.51 446744.68 14.11 0
85173.10 446743.61 10.35 0
85173.53 446742.89 8.29 0
85173.94 446742.36 5.78 0
85174.42 446742.02 2.29 0
85173.44 446743.64 16.16 29
85173.94 446742.42 12.68 0
85174.25 446742.06 11.43 0
85174.62 446741.93 9.04 0
85175.18 446742.26 5.23 0
85175.77 446742.53 1.55 0
85174.76 446743.03 16.44 0
85175.24 446742.94 14.10 0
85175.77 446743.23 9.61 0
85176.38 446743.94 4.46 0
85176.84 446743.66 1.56 0
85177.09 446743.01 1.54 0
85177.27 446742.77 1.51 0
85176.35 446744.62 14.31 0
85176.62 446744.22 13.95 0
85176.87 446744.52 13.94 0
85178.10 446746.29 2.27 0
85178.20 446746.37 5.62 0
85178.35 446746.98 8.14 0
85179.27 446747.27 1.99 0
85179.18 446747.26 7.06 0
85179.91 446747.77 1.91 0
85179.61 446747.61 9.41 0
85180.42 446748.67 5.84 0
85180.89 446749.24 6.68 0
85181.52 446749.95 5.91 0
85182.32 446750.67 2.58 0
85233.39 446874.99 20.91 0
85254.30 446876.71 19.61 0
85257.97 446880.56 19.32 0
85257.17 446880.31 19.59 0
85256.68 446880.28 20.72 18
85253.10 446877.80 22.29 18
85252.15 446877.38 22.91 18
85250.91 446876.67 23.69 18
85251.84 446877.77 23.65 18
85254.52 446880.32 23.07 18
85248.22 446875.40 22.93 0
85252.01 446878.78 24.35 18
85262.06 446887.60 14.77 0
85250.24 446877.81 25.36 18
85261.75 446887.84 15.31 0
85249.22 446877.49 26.10 18
85262.56 446888.95 15.45 0
85251.05 446879.40 25.98 18
85246.30 446875.91 21.65 0
85252.38 446880.85 25.55 0
85246.93 446876.71 23.19 0
85257.26 446885.37 17.85 0
85247.84 446877.63 24.94 0
85260.45 446888.26 17.09 0
85248.89 446878.71 27.08 0
85244.59 446875.64 21.57 0
85250.27 446880.13 27.42 18
85245.71 446876.81 22.66 0
85257.48 446886.60 18.47 0
85247.85 446878.67 26.08 0
85243.17 446875.25 21.58 0
85254.84 446884.87 18.44 5
85246.37 446877.96 23.95 0
85258.00 446887.82 18.48 0
85247.77 446879.39 26.75 0
85243.36 446876.22 21.58 0
85255.24 446886.22 18.44 5
85246.18 446878.81 24.68 0
85241.30 446875.16 21.58 0
85251.87 446883.90 22.62 0
85245.18 446878.62 23.55 0
85258.32 446889.56 18.43 5
85247.60 446880.68 27.97 0
85243.82 446878.04 21.88 0
85256.98 446888.87 18.45 5
85246.90 446880.53 27.20 0
85242.66 446877.51 21.58 0
85256.26 446888.68 18.44 5
85246.39 446880.52 26.68 0
85241.97 446877.34 21.58 0
85255.56 446888.48 18.46 5
85245.88 446880.51 26.21 0
85241.29 446877.16 21.58 0
85254.87 446888.28 18.45 5
85245.19 446880.34 25.42 0
85240.31 446876.73 21.54 3
85253.85 446887.87 18.45 5
85244.89 446880.50 25.29 0
85239.96 446876.84 21.61 0
85253.45 446887.97 18.45 5
85244.13 446880.36 24.51 0
85239.18 446876.68 20.84 0
85253.05 446888.11 18.46 5
85244.19 446880.83 25.00 0
85239.49 446877.40 20.54 0
85254.26 446889.50 18.45 5
85244.61 446881.54 26.21 0
85240.42 446878.58 20.40 0
85255.47 446890.95 18.44 5
85245.47 446882.69 26.98 0
85241.30 446879.73 21.20 0
85236.03 446875.76 18.36 0
85251.15 446888.06 18.45 5
85242.50 446881.02 23.67 0
85237.74 446877.57 18.51 0
85252.70 446889.68 18.43 5
85243.15 446881.85 25.17 0
85239.17 446879.08 18.69 0
85254.98 446891.78 18.44 5
85244.88 446883.50 25.61 0 6.19277072382851
85240.31 446880.18 20.79 0
85234.65 446875.85 19.03 0
85247.30 446885.79 24.91 0
85241.59 446881.41 23.27 0
85237.16 446878.27 17.16 0
85251.97 446890.15 18.45 5
85243.07 446882.88 24.24 0
85239.15 446880.16 17.62 0
85255.20 446893.02 18.43 5
85245.14 446884.83 24.63 0
85239.99 446880.97 21.39 0
85235.56 446877.79 16.05 0
85249.96 446889.26 18.48 5
85241.58 446882.46 22.98 0
85237.37 446879.48 17.16 0
85252.20 446891.46 18.44 5
85243.61 446884.47 23.36 0
85238.49 446880.69 19.18 0
85255.01 446894.17 18.49 0
85245.91 446886.77 23.73 0
85239.81 446882.13 21.38 0
85237.82 446881.18 9.88 0
85252.11 446892.43 18.17 0
85243.75 446885.66 22.41 0
85238.13 446881.42 19.62 0
85231.22 446875.91 21.53 3
85249.91 446891.18 16.98 0
85241.61 446884.47 21.17 0
85239.82 446884.00 3.69 0
85252.63 446893.70 17.57 0
85244.24 446886.91 21.82 0
85239.76 446884.12 8.46 0
85253.85 446895.06 17.62 0
85245.44 446888.25 21.82 0
85239.36 446883.63 19.30 0
85230.17 446876.32 21.54 3
85250.21 446892.66 15.88 0
85240.59 446884.95 19.33 0
85242.79 446887.63 1.33 0
85252.31 446894.57 16.41 0
85243.90 446887.76 20.67 0
85243.20 446888.01 5.76 0
85253.80 446896.08 16.72 0
85244.84 446888.86 20.65 0
85243.89 446888.82 7.34 0
85227.62 446875.34 21.53 3
85246.31 446890.42 20.82 0
85244.55 446889.67 8.94 0
85227.86 446875.94 21.55 3
85246.32 446890.94 19.59 0
85244.66 446890.19 9.33 0
85227.43 446876.06 21.56 3
85251.65 446896.25 6.27 0
85244.38 446890.42 9.00 0
85227.07 446876.20 21.54 3
85253.10 446898.08 2.14 0
85231.78 446880.62 16.52 0
85253.61 446898.26 14.44 0
85243.79 446890.95 7.39 0
85225.93 446876.21 21.55 3
85243.58 446891.12 8.66 0
85225.85 446876.56 21.55 3
85243.59 446891.36 11.18 0
85227.04 446877.86 21.56 3
85245.02 446892.91 10.75 0
85228.42 446879.37 20.95 0
85223.08 446875.31 18.55 30
85242.71 446891.88 3.41 0
85223.95 446876.29 20.38 30
85242.68 446891.83 10.67 0
85225.99 446878.19 21.55 3
85245.03 446893.96 11.34 0
85229.25 446881.24 18.15 0
85222.76 446876.12 19.08 0
85242.19 446892.32 8.38 0
85225.31 446878.41 21.55 3
85220.85 446875.19 16.39 30
85241.93 446892.52 9.73 0
85225.21 446878.80 21.55 3
85220.68 446875.52 16.58 30
85242.49 446893.38 10.68 0
85224.80 446878.95 21.55 3
85220.32 446875.72 16.48 30
85241.39 446893.00 8.99 0
85224.43 446879.05 21.55 3
85220.00 446875.85 16.37 30
85241.53 446893.75 4.84 0
85222.66 446878.09 21.17 30
85219.13 446875.72 14.05 0
85228.99 446883.74 15.82 0
85221.52 446877.69 19.71 30
85242.81 446895.32 9.01 0
85222.38 446878.65 21.55 3
85217.89 446875.40 16.53 27
85221.51 446878.35 20.37 30
85226.50 446882.69 19.12 0
85220.40 446877.92 18.92 30
85224.02 446880.99 21.58 3
85219.25 446877.48 17.41 30
85222.69 446880.37 21.55 3
85217.77 446876.72 17.87 27
85221.41 446879.77 21.57 3
85216.21 446875.86 18.76 27
85220.58 446879.64 20.96 30
85227.07 446885.45 15.87 0
85219.79 446879.53 20.12 30
85225.01 446884.07 19.01 0
85218.84 446879.25 19.00 27
85253.11 446907.22 3.79 0
85219.96 446880.34 21.14 30
85213.94 446875.63 20.98 27
85225.56 446885.30 17.18 0
85218.57 446879.69 19.76 27
85253.01 446907.34 14.09 0
85224.08 446884.40 19.50 0
85217.67 446879.33 20.40 27
85253.23 446907.79 15.83 0
85252.12 446907.74 0.62 0
85218.44 446880.30 20.47 27
85212.06 446875.25 21.55 3
85252.15 446907.86 4.85 0
85219.55 446881.45 21.55 3
85213.51 446876.72 21.55 3
85252.46 446908.00 14.88 0
85225.39 446886.76 15.82 0
85217.36 446880.16 21.56 3
85211.32 446875.44 21.54 3
85251.98 446908.14 14.08 0
85223.06 446885.20 19.52 0
85216.28 446879.78 21.59 3
85210.28 446875.09 21.55 3
85252.04 446908.54 16.09 10
85251.17 446908.66 1.19 0
85217.06 446880.85 21.56 3
85211.01 446876.12 21.54 3
85252.53 446909.23 17.30 10
85251.53 446909.23 2.80 0
85217.61 446881.66 21.56 3
85211.55 446876.92 21.55 3
85254.31 446911.01 17.66 0
85250.97 446908.99 6.71 0
85219.65 446883.66 21.57 3
85213.60 446878.92 21.57 3
85257.95 446914.30 16.83 0
85251.45 446909.24 16.30 10
85250.45 446909.30 0.82 0
85216.22 446881.38 21.57 3
85211.09 446877.36 21.55 3
85254.63 446911.99 18.16 0
85250.79 446909.42 10.21 0
85220.41 446885.02 21.57 3
85214.61 446880.48 21.60 3
85208.63 446875.80 21.54 3
85251.63 446910.01 17.33 10
85250.15 446909.66 2.26 0
85216.42 446882.22 21.56 3
85210.40 446877.51 21.53 3 1.676977430831172
85252.72 446911.13 19.45 10
85250.13 446909.74 7.52 0
85219.12 446884.70 21.55 3
85213.31 446880.15 21.64 0
85207.37 446875.51 21.50 3
85251.56 446910.70 18.00 10
85249.77 446910.05 3.89 0
85216.60 446883.14 21.56 3
85210.85 446878.64 21.55 3
85255.66 446914.28 19.21 0
85250.19 446910.16 16.22 10
85249.88 446910.66 2.43 0
85216.19 446883.25 21.55 3
85210.13 446878.51 21.63 19
85254.27 446913.54 20.01 0
85249.76 446910.31 14.70 0
85219.16 446885.98 21.57 3
85213.08 446881.22 21.59 3
85207.46 446876.89 20.30 19
85252.50 446912.59 20.89 10
85249.53 446910.94 8.30 0
85214.81 446883.04 21.57 3
85209.13 446878.66 20.47 19
85255.66 446915.54 20.31 0
85250.14 446911.37 17.46 10
85217.46 446885.56 21.58 3
85211.57 446880.98 20.98 19
85206.19 446876.88 18.95 19
85251.81 446912.91 20.57 10
85219.19 446887.36 20.71 0
85212.95 446882.45 21.14 19
85207.57 446878.35 19.11 19
85253.05 446914.15 21.63 0
85248.78 446911.12 15.77 0
85214.67 446884.11 21.48 19
85209.27 446879.99 19.36 19
85203.87 446875.87 17.38 19
85250.85 446912.90 19.64 10
85217.96 446887.05 21.57 3
85213.40 446883.53 20.64 19
85207.99 446879.41 18.55 19
85202.59 446875.29 16.51 19
85250.52 446913.04 19.55 10
85217.90 446887.39 21.57 3
85213.15 446883.74 20.21 19
85207.75 446879.63 18.10 19
85202.36 446875.52 16.07 19
85250.98 446913.71 20.67 10
85218.64 446888.42 20.12 0
85213.23 446884.20 19.81 19
85207.80 446880.06 17.76 19
85202.38 446875.92 15.82 0
85250.92 446913.98 20.89 10
85219.68 446889.68 17.82 0
85213.49 446884.72 19.93 22
85208.15 446880.67 17.56 19
85203.17 446876.96 14.03 0
85250.18 446913.87 20.11 10
85217.53 446888.25 21.36 0
85212.54 446884.48 18.83 19
85207.13 446880.35 16.78 19
85254.18 446917.39 21.54 1
85248.82 446913.37 18.33 10
85215.55 446887.16 21.56 3
85210.96 446883.77 17.80 19
85205.50 446879.60 15.83 0
85250.44 446914.93 21.53 1
85246.80 446912.49 14.08 0
85212.85 446885.57 20.21 22
85208.03 446882.02 16.24 19
85251.42 446916.08 21.55 0
85246.95 446912.87 16.13 10
85213.61 446886.47 21.56 3
85209.18 446883.30 16.27 19
85252.11 446917.01 21.52 1
85246.67 446913.06 16.02 10
85213.26 446886.60 21.62 0
85209.03 446883.60 15.81 19
85249.34 446915.26 20.87 10
85216.21 446889.23 22.73 0
85211.54 446885.76 19.31 22
85208.94 446884.46 5.83 0
85248.26 446914.85 19.36 10
85216.02 446889.51 21.37 0
85211.06 446885.77 18.81 22
85208.81 446884.74 5.17 0
85247.58 446914.69 18.62 10
85214.74 446888.82 21.55 3
85209.98 446885.32 17.34 22
85208.98 446885.28 3.62 0
85247.47 446915.00 18.85 10
85214.09 446888.72 21.56 3
85209.64 446885.47 17.31 0
85208.85 446885.58 3.83 0
85247.90 446915.72 20.03 10
85215.40 446890.19 21.89 0
85210.70 446886.64 19.44 22
85209.27 446886.18 7.29 0
85250.84 446918.39 21.55 0
85245.94 446914.79 17.29 10
85212.39 446888.29 21.56 3
85208.14 446885.29 15.68 22
85207.63 446885.62 2.19 0
85247.25 446916.06 19.80 10
85214.99 446890.75 20.97 0
85209.87 446886.85 18.90 22
85207.63 446885.73 7.29 0
85248.84 446917.64 21.51 1
85244.62 446914.67 15.47 0
85211.14 446888.13 21.47 22
85207.44 446885.71 12.82 0
85207.05 446886.06 0.78 0
85246.40 446916.26 19.27 10
85213.15 446890.11 21.57 3
85209.04 446887.06 18.37 22
85207.22 446886.19 8.29 0
85249.09 446918.61 21.54 1
85244.52 446915.30 16.48 10
85211.01 446888.80 21.55 3
85207.31 446886.25 14.99 0
85206.60 446886.41 2.01 0
85246.63 446917.05 20.30 10
85213.72 446891.23 21.64 0
85208.84 446887.56 18.79 22
85206.80 446886.74 4.48 0
85246.73 446917.48 20.86 10
85215.69 446893.38 17.51 0
85209.96 446888.70 20.98 22
85206.76 446886.70 11.73 0
85250.39 446920.72 21.56 0
85244.44 446916.29 17.45 10
85212.17 446890.81 21.55 3
85207.45 446887.35 17.21 22
85206.27 446887.09 5.07 0
85245.88 446917.67 20.27 10
85212.97 446891.78 22.68 0
85208.52 446888.47 19.43 22
85207.10 446888.02 7.31 0
85246.39 446918.37 21.49 1
85242.70 446915.89 14.10 0
85209.22 446889.32 20.98 22
85205.83 446887.20 11.29 0
85245.86 446918.44 21.05 10
85215.19 446894.70 16.53 0
85208.30 446889.12 19.94 22
85205.46 446887.37 11.27 0
85247.58 446920.23 21.50 1
85242.42 446916.57 14.53 0
85208.73 446889.84 21.09 22
85205.22 446887.60 11.84 0
85245.55 446919.05 21.46 1
85241.87 446916.57 14.09 0
85208.02 446889.74 20.32 22
85205.17 446888.08 9.78 0
85245.08 446919.03 21.01 10
85214.40 446895.25 16.68 0
85207.74 446889.86 20.18 22
85205.39 446888.56 10.09 0
85244.79 446919.18 20.91 10
85213.85 446895.17 17.26 0
85207.45 446890.01 20.08 22
85205.15 446888.82 8.78 0
85244.47 446919.33 20.74 10
85213.30 446895.10 17.84 0
85206.92 446890.01 19.60 22
85204.88 446889.03 8.34 0
85244.72 446919.85 21.59 10
85241.10 446917.42 14.06 0
85207.41 446890.70 20.78 22
85204.11 446888.66 10.74 0
85245.44 446920.73 21.52 1
85241.11 446917.65 15.78 0
85207.54 446891.09 21.34 22
85204.14 446888.94 11.73 0
85247.72 446922.88 21.54 1
85242.17 446918.74 18.05 10 1.142111588814387
85209.52 446892.99 21.67 0
85205.24 446889.85 17.89 22
85204.76 446890.38 1.30 0
85244.00 446920.42 21.56 10
85240.35 446917.97 14.08 0
85206.68 446891.28 20.74 22
85203.58 446889.38 11.06 0
85246.22 446922.65 21.50 1
85241.23 446918.96 17.45 10
85207.82 446892.60 21.62 0
85203.50 446889.54 15.96 22
85246.85 446923.55 21.52 1
85241.50 446919.54 18.31 10
85208.63 446893.65 21.67 0
85204.37 446890.53 17.84 22
85203.63 446890.82 2.02 0
85242.76 446920.82 20.82 10
85211.88 446896.86 17.28 0
85205.46 446891.68 20.06 22
85203.02 446890.42 8.17 0
85244.12 446922.20 21.52 1
85239.69 446919.03 16.09 10
85206.16 446892.50 21.61 22
85202.66 446890.16 14.31 0
85246.38 446924.30 21.64 0
85240.20 446919.70 17.27 10
85207.38 446893.79 21.56 6
85203.69 446891.10 17.84 22
85201.82 446890.47 2.68 0
85240.91 446920.48 18.81 10
85208.24 446894.78 21.60 0
85203.80 446891.48 18.36 22
85201.64 446890.62 3.24 0
85240.81 446920.79 18.96 10
85207.95 446894.90 22.42 0
85204.10 446892.06 19.25 22
85201.55 446890.71 7.61 0
85240.66 446921.08 19.18 10
85208.42 446895.73 21.64 0
85203.56 446892.08 18.79 22
85201.97 446891.65 3.90 0
85240.56 446921.37 19.38 10
85207.78 446895.62 21.55 6
85203.05 446892.09 18.31 22
85201.04 446891.15 6.79 0
85241.04 446922.05 20.54 10
85209.72 446897.69 18.33 0
85203.73 446892.92 19.86 22
85202.11 446892.33 7.29 0
85241.29 446922.68 21.42 10
85237.53 446920.13 14.20 0
85203.99 446893.55 20.71 22
85200.87 446891.64 11.03 0
85243.12 446924.58 21.52 1
85238.10 446920.92 16.68 10
85204.59 446894.42 22.28 22
85200.81 446891.81 15.89 0
85200.05 446891.97 2.09 0
85239.36 446922.18 19.21 10
85206.27 446896.18 21.58 6
85201.66 446892.79 17.80 22
85200.77 446892.86 3.66 0
85240.11 446922.98 20.71 10
85207.51 446897.50 20.56 0
85202.42 446893.58 19.36 22
85200.43 446892.66 7.82 0
85241.44 446924.34 21.50 1
85237.02 446921.18 16.00 10
85203.85 446894.94 21.55 6
85200.59 446892.84 13.43 0
85199.36 446892.56 1.01 0
85238.91 446922.83 19.49 10
85206.52 446897.40 21.62 0
85201.63 446893.73 18.77 22
85199.52 446892.62 8.79 0
85241.08 446924.78 21.51 1
85236.62 446921.59 16.06 10
85202.93 446894.97 21.29 22
85199.37 446892.74 11.15 0
85243.33 446926.86 21.64 0
85237.93 446922.80 18.59 10
85205.29 446897.12 21.55 6
85200.47 446893.58 17.55 22
85199.69 446893.76 2.85 0
85239.24 446924.09 21.11 10
85208.96 446900.71 15.82 0
85201.97 446894.99 20.45 22
85198.99 446893.22 10.33 0
85242.64 446927.18 21.56 0
85237.29 446923.18 18.36 10
85204.27 446897.20 21.55 6
85199.82 446893.95 17.36 22
85198.40 446893.52 4.83 0
85238.54 446924.48 20.92 10
85207.87 446900.74 16.73 0
85201.28 446895.40 20.25 22
85198.17 446893.56 9.51 0
85239.24 446925.38 21.50 1
85235.24 446922.62 14.97 0
85202.35 446896.55 21.57 6
85198.50 446893.94 14.35 0
85241.52 446927.59 21.54 1
85235.70 446923.29 17.00 10
85202.27 446896.92 21.54 6
85198.01 446893.91 15.71 22
85241.75 446928.16 21.62 14
85235.39 446923.44 16.89 10
85201.80 446896.87 22.84 0
85198.33 446894.50 16.56 22
85198.55 446895.56 0.37 0
85236.69 446924.67 19.41 10
85205.09 446899.99 19.14 0
85199.61 446895.71 19.11 22
85197.42 446894.59 8.24 0
85237.46 446925.47 20.94 10
85206.89 446901.83 16.47 0
85199.98 446896.24 20.01 22
85197.48 446894.92 8.24 0
85237.55 446925.84 21.45 1
85233.86 446923.36 14.11 0
85199.92 446896.51 20.21 22
85198.37 446896.00 7.28 0
85239.79 446927.96 21.53 1
85234.06 446923.78 16.03 10
85200.20 446897.05 21.01 22
85196.77 446894.89 11.40 0
85239.44 446928.08 21.51 1
85233.94 446924.06 16.23 10
85200.29 446897.48 21.59 6
85196.76 446895.13 14.26 0
85241.22 446929.93 20.32 0
